1.317450000000000010e+00 -2.033650000000000180e+00 1.789809999999999901e+00
1.371480000000000032e+00 -1.458520000000000039e+00 3.060039999999999871e+00
7.846899999999999986e-01 -2.148400000000000032e-01 3.324840000000000018e+00
1.009199999999999958e-01 3.832200000000000051e-01 2.275790000000000202e+00
-7.771000000000000130e-01 1.987789999999999946e+00 8.971099999999999630e-01
2.593400000000000150e-01 2.994369999999999976e+00 3.284599999999999742e-01
1.406789999999999985e+00 2.324289999999999967e+00 -3.975000000000000200e-01
1.229880000000000084e+00 1.237440000000000095e+00 -1.147459999999999924e+00
-1.247499999999999998e-01 -9.019800000000000040e-01 -1.680870000000000086e+00
6.675400000000000222e-01 -1.838710000000000067e+00 -7.100199999999999845e-01
6.138599999999999612e-01 -1.417899999999999938e+00 7.442299999999999471e-01
-4.236000000000000182e-02 -2.429199999999999970e-01 1.058200000000000029e+00
-8.363699999999999468e-01 6.384400000000000075e-01 1.293499999999999928e-01
-1.255100000000000104e-01 5.866599999999999593e-01 -1.241309999999999913e+00
-2.289299999999999891e+00 1.472799999999999943e-01 -5.004999999999999727e-02
-2.349499999999999922e+00 -1.235540000000000083e+00 -7.041600000000000081e-01
-1.694590000000000041e+00 -2.520020000000000149e+00 -2.649820000000000064e+00
9.312599999999999767e-01 3.682099999999999818e-01 4.549599999999999866e+00
6.906400000000000317e-01 3.894200000000000106e+00 1.330030000000000046e+00
-4.209300000000000264e-01 1.657699999999999951e+00 2.285029999999999895e+00
-1.525800000000000045e+00 -1.285150000000000015e+00 -1.908879999999999910e+00
1.849059999999999926e+00 -2.963750000000000107e+00 1.611960000000000059e+00
1.918800000000000061e+00 -1.941940000000000000e+00 3.861940000000000150e+00
-1.752250000000000085e+00 2.474359999999999893e+00 9.641899999999999915e-01
-2.847199999999999731e-01 3.608359999999999790e+00 -4.049400000000000222e-01
2.366169999999999884e+00 2.827719999999999789e+00 -3.242300000000000182e-01
2.055250000000000021e+00 8.072599999999999776e-01 -1.709649999999999892e+00
3.659299999999999775e-01 -9.614599999999999813e-01 -2.659590000000000121e+00
3.120600000000000041e-01 -2.867490000000000094e+00 -8.441199999999999815e-01
1.719799999999999995e+00 -1.853280000000000038e+00 -1.022010000000000085e+00
-7.359499999999999931e-01 1.112510000000000110e+00 -1.988730000000000109e+00
-2.799409999999999954e+00 1.149199999999999944e-01 9.188300000000000356e-01
-2.820260000000000211e+00 8.718900000000000539e-01 -6.801099999999999923e-01
-2.060119999999999951e+00 -2.008620000000000072e+00 3.223000000000000170e-02
-3.383879999999999999e+00 -1.456820000000000004e+00 -9.915000000000000480e-01
-2.745589999999999975e+00 -2.630079999999999973e+00 -2.938060000000000116e+00
-1.411180000000000101e+00 -3.431669999999999998e+00 -2.091250000000000053e+00
-1.094810000000000061e+00 -2.487519999999999953e+00 -3.565230000000000121e+00
4.330600000000000005e-01 1.193179999999999907e+00 4.551009999999999778e+00
7.810200000000000475e-01 3.369380000000000042e+00 2.135330000000000172e+00
